-1.66344 -0.937833 4.07611 21 28 28
-1.65074 -0.761675 4.16536 13 20 22
-1.63905 -0.585996 4.25768 29 30 26
-1.62527 -0.408246 4.34501 7 12 16
-1.61279 -0.230366 4.43568 28 32 34
-1.60043 -0.0518413 4.52557 7 10 14
-1.69331 -0.848781 3.90298 12 18 19
-1.68046 -0.672628 3.99191 28 31 29
-1.66708 -0.496353 4.08074 15 16 17
-1.65405 -0.318607 4.16881 30 28 25
-1.64291 -0.140246 4.26125 18 13 14
-1.62888 0.0384095 4.348 34 33 30
-1.7233 -0.759267 3.7288 27 31 30
-1.7086 -0.582932 3.81521 10 16 19
-1.69689 -0.405929 3.90554 30 30 30
-1.6851 -0.228195 3.99627 13 14 17
-1.67045 -0.050685 4.08172 36 33 32
-1.65964 0.128335 4.17384 9 16 15
-1.75192 -0.669395 3.55271 10 18 20
-1.74063 -0.493847 3.64416 28 30 30
-1.72708 -0.31609 3.73079 14 16 18
-1.71505 -0.138872 3.8213 30 30 30
-1.70242 0.0394755 3.90986 10 16 18
-1.68909 0.218288 3.99778 33 32 32
-1.7848 -0.580476 3.38149 24 30 30
-1.77193 -0.403774 3.47089 13 18 20
-1.75741 -0.226668 3.55615 28 28 27
-1.74418 -0.0483962 3.6435 8 12 16
-1.73214 0.13005 3.73289 30 31 32
-1.71837 0.308853 3.81915 6 12 14
-1.81397 -0.490489 3.20668 12 18 18
-1.79926 -0.314311 3.29397 29 30 30
-1.78664 -0.136045 3.37978 8 14 15
-1.77505 0.0415818 3.46933 26 29 29
-1.76046 0.220203 3.55421 8 14 18
-1.74897 0.399292 3.64451 30 32 31
-1.84322 -0.401421 3.03336 25 31 28
-1.82918 -0.224229 3.12043 10 17 18
-1.81675 -0.0467474 3.2056 24 26 26
-1.80503 0.131021 3.29357 5 10 13
-1.79134 0.309868 3.37974 24 30 28
-1.77873 0.48904 3.4673 8 11 14
-1.8737 -0.311741 2.85841 11 14 18
-1.85891 -0.134459 2.94431 20 24 24
-1.84497 0.0430508 3.03178 8 12 14
-1.82905 0.221651 3.11554 20 24 24
-1.81864 0.400182 3.20442 4 11 12
-1.80786 0.579431 3.29177 21 25 24
0.515725 -1.13246 4.57161 21 18 15
0.531269 -0.951303 4.66297 18 15 14
0.546358 -0.770741 4.76249 27 20 18
0.562065 -0.587605 4.85444 22 19 16
0.578073 -0.404938 4.94791 24 16 14
0.31184 -1.13252 4.60026 22 18 16
0.326042 -0.951284 4.6953 24 19 18
0.34151 -0.769825 4.78645 20 19 18
0.356523 -0.586296 4.8767 25 18 16
0.371788 -0.405838 4.9805 22 18 18
0.0943144 -1.30855 4.53002 18 16 14
0.108897 -1.1316 4.62821 22 16 16
0.123815 -0.95017 4.71792 19 15 15
0.13812 -0.768848 4.80923 24 19 19
0.152944 -0.587298 4.90678 21 18 15
0.16774 -0.405325 5.00248 23 16 16
-0.106374 -1.30705 4.55554 16 14 14
-0.091826 -1.12787 4.64715 18 16 16
-0.0778541 -0.948193 4.7379 19 16 16
-0.0640812 -0.766879 4.83114 20 16 16
-0.0495532 -0.586722 4.92809 25 18 17
-0.0355741 -0.404495 5.02154 23 19 18
-0.306114 -1.30487 4.57991 20 16 17
-0.292335 -1.12599 4.67091 22 17 18
-0.279191 -0.94803 4.76716 16 14 14
-0.264907 -0.767435 4.86046 25 17 18
-0.250715 -0.586383 4.95119 22 20 17
-0.237004 -0.405496 5.04551 21 18 16
-0.50501 -1.30302 4.60608 18 16 16
-0.491576 -1.12473 4.69718 20 15 16
-0.477701 -0.945181 4.78599 21 18 18
-0.464827 -0.765978 4.88191 19 16 16
-0.451649 -0.585615 4.97542 24 18 18
-0.438663 -0.405601 5.07319 10 16 17
-0.700962 -1.29918 4.62467 20 16 14
-0.689295 -1.12263 4.72019 18 16 16
-0.676091 -0.944249 4.81216 15 15 14
-0.663346 -0.764933 4.90523 16 16 16
-0.649831 -0.584779 4.99475 16 18 16
-0.636183 -0.404537 5.08781 20 20 22
-0.896969 -1.29658 4.64892 16 14 14
-0.886938 -1.12203 4.74932 14 16 15
-0.873557 -0.942641 4.8362 18 16 16
-0.861427 -0.763571 4.92775 16 16 16
-0.847544 -0.583961 5.01767 21 18 18
-0.834935 -0.404291 5.11118 15 16 17
-0.787119 0.257575 4.85086 16 14 14
-0.820105 0.347625 4.67375 44 50 52
-0.853111 0.437892 4.49237 28 24 20
-0.886049 0.528158 4.31479 56 56 60
-0.918817 0.617935 4.13414 34 34 30
-0.950799 0.708375 3.95602 50 60 64
-0.58776 0.259356 4.82359 44 44 48
-0.622243 0.349581 4.64736 26 22 21
-0.654372 0.439902 4.46682 51 52 54
-0.68763 0.530726 4.28699 32 28 25
-0.718898 0.620437 4.10321 60 60 60
-0.751319 0.710493 3.92327 38 36 30
-0.390026 0.261173 4.80788 24 19 18
-0.421585 0.352029 4.61965 51 50 51
-0.454931 0.442981 4.43923 29 26 22
-0.487223 0.533292 4.25837 52 57 56
-0.52047 0.624152 4.07804 37 38 36
-0.551597 0.713618 3.89449 61 66 66
-0.187413 0.261529 4.77624 42 44 42
-0.22132 0.35322 4.59537 28 26 24
-0.253183 0.443424 4.4079 52 53 53
-0.286565 0.5362 4.22926 34 33 30
-0.318833 0.627264 4.04936 59 62 60
-0.351028 0.717445 3.86625 44 40 36
0.0147215 0.266006 4.74887 28 22 20
-0.0177031 0.35703 4.56737 48 46 46
-0.051867 0.448559 4.38819 32 30 25
-0.0831384 0.538873 4.19734 54 58 59
-0.116206 0.630719 4.01805 40 40 39
-0.148157 0.720942 3.83412 70 61 57
0.219173 0.26827 4.72406 38 39 42
0.184984 0.35988 4.53867 32 32 28
0.152591 0.451241 4.35548 50 50 50
0.119442 0.542006 4.16669 43 36 31
0.0871472 0.633987 3.98587 66 62 56
0.0547081 0.724395 3.80088 46 46 42
0.423665 0.270032 4.69178 32 28 24
0.390571 0.361981 4.50611 46 48 47
0.356769 0.453953 4.32457 37 35 31
0.324014 0.545564 4.13737 56 54 52
0.290832 0.637056 3.95215 52 44 42
0.258043 0.728118 3.76895 67 61 60
0.630039 0.272651 4.66275 40 38 39
0.595976 0.364657 4.47874 39 36 32
0.562383 0.456699 4.28695 51 50 50
0.528777 0.548814 4.10432 46 42 38
0.496077 0.640391 3.91709 60 56 54
0.46297 0.731413 3.73421 54 49 44
