-0.244538 -0.258393 2.46607 68 74 64
-0.24496 -0.139105 2.46779 74 80 68
-0.245078 -0.0194343 2.46882 69 72 66
-0.246059 0.100047 2.47108 71 72 73
-0.247992 0.219641 2.47408 66 67 64
-0.249817 0.339082 2.47657 66 58 51
-0.159702 -0.26143 2.54783 70 78 76
-0.160072 -0.141827 2.5496 62 76 66
-0.161953 -0.0224141 2.55227 60 58 50
-0.163329 0.0968297 2.55458 42 62 48
-0.164524 0.216499 2.55725 70 71 66
-0.165731 0.335859 2.55881 64 68 62
-0.0757745 -0.264169 2.63041 70 76 66
-0.0762274 -0.144984 2.63173 61 64 57
-0.0775685 -0.0253719 2.63417 70 66 69
-0.0789216 0.0938761 2.63642 67 68 64
-0.0800749 0.213288 2.63817 56 64 62
-0.0813764 0.332819 2.64076 69 68 67
0.00843831 -0.267153 2.71276 82 70 60
0.00760718 -0.14779 2.71479 65 77 71
0.0063533 -0.0285123 2.71763 46 68 65
0.00536833 0.0908752 2.71949 62 62 57
0.00425736 0.210143 2.72109 78 83 75
0.00321077 0.329438 2.7225 56 59 57
0.0927138 -0.270181 2.79538 71 78 68
0.091804 -0.150965 2.79793 66 73 70
0.0908841 -0.0315445 2.80015 66 76 70
0.0897774 0.0877288 2.80158 66 67 60
0.088505 0.207053 2.80385 49 54 58
0.0873004 0.326434 2.80564 64 66 63
0.176817 -0.273227 2.87746 74 77 72
0.175682 -0.15408 2.88126 60 67 66
0.175022 -0.0345384 2.88153 70 74 74
0.173623 0.0848017 2.88479 62 67 60
0.172735 0.204039 2.88515 64 74 66
0.171456 0.323219 2.88658 53 64 65
0.260861 -0.276178 2.95964 70 93 91
0.259845 -0.156759 2.96137 64 84 82
0.258876 -0.0374028 2.9637 62 48 40
0.25789 0.0817957 2.96578 62 56 52
0.256274 0.201132 2.96881 54 64 56
0.255301 0.320138 2.96832 75 74 76
0.344606 -0.279101 3.04299 56 64 60
0.343854 -0.159922 3.04484 72 82 75
0.34271 -0.0405956 3.04749 78 75 69
0.34142 0.0788175 3.04888 61 69 62
0.340122 0.19801 3.05019 66 67 64
0.338639 0.31736 3.05201 65 50 42
0.951098 -0.280074 3.06201 128 112 113
0.949058 -0.161265 3.06482 114 114 120
0.946657 -0.0421942 3.06646 128 107 94
0.944559 0.0766868 3.06909 128 118 126
0.94263 0.195684 3.07308 128 120 106
0.940304 0.31471 3.07421 128 128 128
1.03623 -0.274749 2.9757 128 128 128
1.03428 -0.155885 2.97889 128 126 112
1.03204 -0.0369137 2.98194 128 108 104
1.0297 0.0819298 2.98335 107 108 95
1.02794 0.200967 2.98578 128 120 117
1.02595 0.319975 2.98961 128 128 116
1.12113 -0.269284 2.89017 128 106 102
1.11925 -0.150332 2.8924 128 121 118
1.11721 -0.0316513 2.896 128 128 128
1.115 0.0873053 2.89742 128 128 122
1.11287 0.206276 2.9002 128 125 109
1.1112 0.325347 2.90423 128 124 116
1.20634 -0.263883 2.80463 128 128 128
1.20451 -0.145137 2.80759 128 128 128
1.20239 -0.0262065 2.80992 111 125 128
1.20003 0.0926494 2.81165 128 128 122
1.19826 0.21156 2.81483 128 116 112
1.19631 0.330308 2.81705 128 128 124
1.29088 -0.258535 2.71791 128 102 102
1.28891 -0.139715 2.72011 128 128 128
1.28705 -0.0208749 2.72347 128 127 122
1.28469 0.0979815 2.72621 128 114 112
1.28293 0.216676 2.72843 128 128 122
1.28077 0.335637 2.73118 128 128 128
1.37555 -0.252955 2.63236 121 126 118
1.37422 -0.134303 2.63502 128 124 127
1.37224 -0.0154702 2.63762 128 127 124
1.3704 0.103409 2.64132 120 128 124
1.36834 0.222116 2.64338 128 120 120
1.36656 0.340787 2.646 128 120 102
1.46101 -0.247724 2.54693 128 127 128
1.45937 -0.12885 2.5504 128 119 128
1.45712 -0.0102294 2.55283 128 124 122
1.45546 0.10864 2.55629 128 128 128
1.4529 0.227392 2.5582 128 128 128
1.45216 0.346194 2.56224 128 118 128
1.54648 -0.242428 2.46267 128 128 128
1.54429 -0.123497 2.4654 128 118 116
1.54271 -0.00479867 2.46818 128 120 124
1.54062 0.113886 2.4714 128 128 122
1.53872 0.232754 2.47369 128 124 127
1.53713 0.351344 2.47648 128 128 128
0.760123 0.604492 2.82689 62 52 29
0.675076 0.606174 2.7442 116 117 118
0.590707 0.607999 2.66267 45 40 27
0.506008 0.609928 2.58129 112 121 122
0.420709 0.611999 2.50076 57 50 46
0.336798 0.614212 2.42008 109 104 108
0.844094 0.608289 2.73832 125 118 128
0.759762 0.61067 2.65947 54 46 42
0.674652 0.612172 2.57655 112 106 124
0.590661 0.614503 2.49665 54 42 42
0.506119 0.616309 2.41494 99 102 119
0.421418 0.618355 2.33455 44 44 44
0.929431 0.613228 2.65497 67 50 32
0.84408 0.614941 2.57237 116 118 128
0.759914 0.616884 2.49079 61 52 30
0.675676 0.619091 2.41121 110 112 116
0.590986 0.620942 2.32955 54 52 54
0.506058 0.621965 2.24654 107 108 122
1.01418 0.616827 2.56921 124 128 125
0.929168 0.6189 2.48761 56 48 45
0.8446 0.620825 2.40717 113 116 128
0.759729 0.623284 2.32424 46 44 48
0.67542 0.624981 2.24231 116 115 118
0.591143 0.627081 2.16267 62 52 43
1.09806 0.622565 2.48238 65 48 52
1.01335 0.624062 2.40046 123 114 128
0.929092 0.625894 2.31829 68 56 41
0.844277 0.627782 2.23707 121 113 114
0.759701 0.629339 2.15448 57 39 40
0.675754 0.631572 2.07483 126 106 104
1.1824 0.626908 2.39478 128 128 128
1.09832 0.629285 2.31546 68 51 54
1.01325 0.630539 2.23228 128 118 118
0.929011 0.632461 2.1518 54 43 44
0.844547 0.634316 2.06967 121 106 109
0.760738 0.636284 1.98855 49 46 46
1.2666 0.631397 2.30898 70 53 62
1.18226 0.633347 2.22793 116 120 128
1.09824 0.635633 2.14782 72 56 37
1.01342 0.637318 2.06542 120 110 112
0.928912 0.63916 1.98345 60 54 54
0.845045 0.640922 1.90215 120 116 126
1.3511 0.636504 2.22355 118 120 128
1.26652 0.637969 2.14157 78 52 52
1.18231 0.640339 2.06098 116 112 114
1.09789 0.64218 1.97885 58 46 44
1.01383 0.644373 1.89832 104 110 105
0.929518 0.646059 1.8164 68 56 32
